# 3D point list with one line of data per point:
#   POINT3D_ID, X, Y, Z, R, G, B, ERROR, TRACK[] as (IMAGE_ID, POINT2D_IDX)
# Number of points: 437, mean track length: 2.3300798580301687
1025 -18.498564041277117 -10.777860244043335 21.763110604426604 134 108 77 1.4368708672437194 2 8816 1 6899
1968 1.5757483746949186 -10.219847654739928 23.992300148402364 63 66 32 0.62124662465832059 1 5918 3 8086
1026 3.8601739532239687 -6.6858089986884837 13.169696020911598 120 94 59 0.15726491120872521 2 8821 1 7317
1029 -18.430914332925557 -9.1073837583926522 19.824995232854128 136 109 76 0.74662679766532491 2 8829 1 6930
1972 1.5487007527340984 -9.4230472523380513 24.035073995414628 58 69 29 0.016920531845093234 1 5921 3 8115
1031 20.019857346914758 -6.9521629763425938 14.767265197566584 28 22 20 1.5927387356713893 2 8835 1 7328
1032 -18.215961423288284 -5.161296485994888 18.10549928382747 146 116 83 0.51509170416078576 2 8853 1 7019
1033 -18.218707114608769 -7.2974102513101178 23.017431984155444 43 34 24 0.22964822946543256 2 8854 1 7363
1976 -21.332132835944947 -14.441710778352133 48.226400228582733 255 255 254 0.06393317252566888 1 5111 3 8161
1034 -18.218707114608769 -7.2974102513101178 23.017431984155444 43 34 24 0.22964822946543256 2 8855 1 7364
1037 -18.220132644421511 -3.2289207128114032 19.144323875781801 214 194 160 0.21382647388393361 2 8870 1 7395
1980 -4.720075284912836 -12.086735430040092 38.794918726936729 15 8 2 0.047210449893592361 2 7001 3 8176
1039 12.498727521387563 -2.3319473592337445 12.507878887717029 49 50 14 1.0841776810334738 2 8876 1 7075
1040 -32.093464109289293 -9.228905771295441 70.361907047751814 178 159 127 0.1203352783516477 2 8885 1 7623
1041 -5.6018769554168122 -2.6753496683554681 40.635174458148668 135 125 107 0.716088951244224 2 8903 1 7892 3 9820
1920 -14.042968026065893 8.3549892128599428 28.624287508787319 172 151 118 0.20653062434778485 2 5385 3 7799
1042 3.2250101728512273 -0.32739661262757214 11.306806464408325 149 138 119 0.4351497546377468 2 8904 1 7103 3 9702
1045 -32.80025323916005 0.013242995651673195 70.60110126549084 232 203 163 0.61509476680202568 2 8915 1 7635
1924 -9.0011602369708221 8.4186778206142741 27.555124979116041 72 69 56 0.10378535199160568 2 5449 3 7805
1047 -0.17589028403878462 2.3448227870199805 29.138134510306088 51 34 22 0.63247934403582706 2 8934 1 7647 3 9714
1048 5.2646408283267521 0.88910267708608992 11.005104208538471 87 73 61 0.28918880162319954 2 8936 1 7130 3 9547
1049 9.1773084207372424 1.0792926881747396 10.726804241358218 39 27 19 0.067880709251833676 2 8937 1 7131 3 9548
1928 -12.768065098000031 8.3847188205764738 27.580474289138838 172 150 114 0.0097814777835029849 2 5442 3 7822
1050 4.6263982294963046 1.2329500797499222 11.236590831199576 110 97 85 0.2529947717086769 2 8943 1 7443
1053 3.0244336141112287 1.9107282674076214 11.540986540091094 24 18 11 0.30451750309731707 2 8950 1 7142 3 9727
1932 4.675640343171624 3.3291543204755687 11.077974316024939 58 47 37 0.31525683212253652 1 1662 3 7837
1055 -10.015414958495011 7.7647272936067999 36.755399163384638 90 81 63 0.85822164695564684 2 8954 1 7461 3 9726
1056 7.7992431698446998 2.3182432798121577 9.7901613721591474 231 159 103 0.11711242097009997 2 8956 1 7457
1057 7.6100182960381817 2.5671718230962992 9.7016612666803788 76 43 21 0.13922223881127491 2 8957 1 7157 3 9735
1872 -1.067288048726234 -3.5236152038364086 30.777706234452097 72 56 40 0.087406021541301088 1 5309 3 7560
1058 7.6100182960381817 2.5671718230962992 9.7016612666803788 76 43 21 0.13922223881127491 2 8958 1 7158 3 9736
1063 6.0245876912668708 2.9334490353742186 9.8460999781689527 242 171 116 0.68293389500037371 2 8964 1 7170 3 9859
1064 7.9475183296563072 2.7345393773107736 9.7378377617784952 27 10 1 2.4656435609582568 2 8965 1 7672
1065 -18.554991338914522 5.901593139974576 17.73230454517957 151 135 114 0.94896990767412537 2 8968 1 7188
1880 -10.998323995588256 -0.80050215007066894 49.54244920230721 50 49 45 0.68628869037329998 1 4375 3 7627
1066 3.2764510396540234 3.656711262061132 11.459629227330927 107 93 77 0.078495989016821921 2 8970 1 7478
1071 7.7845419862845207 3.4710030382535897 9.6570773493520878 228 164 121 0.077529540627388982 2 8984 1 7185
1072 5.2661576946094666 3.9746698435375243 10.028314541652815 214 157 112 0.65090825561782539 2 8991 1 7197 3 9876
1073 5.8982183432345616 4.1751959857613654 9.8211760614754731 35 23 14 0.44144520648816954 2 8992 1 7202 3 9766
1952 3.854644873970817 4.1219756782651089 10.533579005818426 161 143 118 0.069110771499172718 2 4170 3 7919
1074 6.5096641641636008 4.257775510513774 8.4628217486603763 70 52 36 0.021981929853129238 2 8997 1 7211
1079 8.3820530836209723 -6.7086222969954417 12.827062915882932 109 90 67 0.44962775296422947 2 9013 1 7325 3 9777
1080 9.3023724549263367 -6.9793433236917304 12.650880371178792 42 29 17 0.010392203085478885 2 9014 1 7305
1081 18.848993095976141 -8.4742479442353496 15.539454646593267 79 60 50 1.2809488917291201 2 9016 1 7561 3 9638
1960 -11.383868310798682 -15.482195703472842 35.207398665743554 254 254 254 0.15176482149967968 1 4973 3 8037
1082 -18.299448240097334 -11.126538095697791 22.051979937154275 65 50 37 0.045645534771163204 2 9018 1 7300
1087 18.915195142661005 -7.3983517013330076 15.16633259958191 162 123 104 0.29797754002188181 2 9028 1 7576
1088 -18.319463375894092 -8.8198751127568666 22.117260312156414 69 54 35 0.32360278469709636 2 9037 1 7334
1089 -31.475749723514731 -16.104295955104753 70.746738436185026 161 129 91 0.14872781041744668 2 9053 1 7611 3 9802
2032 1.5280719420531981 8.4421839858858139 25.34489463123294 19 28 10 0.46783500896213076 1 5559 3 8510
1090 -31.475749723514731 -16.104295955104753 70.746738436185026 161 129 91 0.14872781041744668 2 9054 1 7612 3 9801
1093 4.5905440153785344 0.11482370797978531 11.180649191374021 137 123 108 0.26156564319372594 2 9077 1 7429 3 9835
2036 0.63791660505213899 8.612273474723084 23.576479567226801 66 57 44 0.48663733371911139 2 6576 3 8531
1095 -10.217972436067949 3.0509173155762643 50.192324840664782 45 41 37 0.22984389274037023 2 9086 1 7793 3 9837
1096 4.595958954618979 0.72602601718848592 11.241705947074408 130 116 97 0.45574479845439808 2 9088 1 7644 3 9922
1097 -10.356324152856587 5.0972531959004961 50.636882189013853 39 34 30 0.075886391271739559 2 9092 1 7798 3 9839
2040 4.5670501236564807 3.5152709256922203 11.255537847520561 57 47 36 0.32873907106160632 1 5494 3 8536
1098 4.5213770810191907 2.1714742303291867 9.8790568778240502 69 47 30 0.042256321809972346 2 9097 1 7455
1101 8.5145572101394951 2.3749839068420124 9.6240723154712811 217 154 103 0.059594519372147561 2 9106 1 7459
2044 -14.733346950725357 8.4818175561556242 24.41921297150574 187 148 107 0.56966749782291148 2 6569 3 8558
1103 5.0804948770412599 2.8724713398923569 9.8926568811545721 234 165 110 0.65614709104680735 2 9112 1 7664 3 9939
1104 5.8455237282879828 2.6300388238017982 9.8976802424878585 81 43 19 0.22055880500251424 2 9114 1 7667
1825 -9.5633504929126012 -27.165941222033705 52.134121461368387 138 102 90 0.024274989076427847 2 5753 3 7169
1109 7.6605420308999035 2.8030988989893517 9.7363341109913488 219 151 97 0.40694158356621918 2 9119 1 7471 3 9740
1988 -2.9524546308800712 -8.1947381629764724 33.700217604424978 60 47 27 0.93947956843849867 1 5181 3 8232
1112 8.0011953188370342 3.3268602244897525 9.7889804284202331 24 9 1 0.53360446592085442 2 9129 1 7481 3 9865
1833 16.428408921418395 -9.3522938926129076 17.688506657947176 75 84 45 0.46045980804935921 1 5849 3 7222
1117 8.8955253839228146 4.0425290451224489 7.9182901082440313 102 81 65 1.1154120343685048 2 9155 1 7503
1996 1.037330659992191 -3.756767846435022 25.267953329615874 83 64 44 0.030173060453892189 2 7122 3 8311
1120 7.784107621426112 -6.7669808611255675 12.776288135164624 123 95 60 0.060280654840488598 2 9167 1 7572
1121 16.557514287169145 -9.826352090583379 17.98262162575406 193 225 251 0.37086283019007094 2 9169 1 7741
1936 -11.179216614871679 8.5254341882661127 25.981964390677618 201 173 128 0.045790034685726566 2 4028 3 7853
1122 -18.392880284283816 -4.3678607468965192 18.522041728781488 141 126 103 1.0562876513727644 2 9194 1 7617
1125 9.727203601648764 0.736462062132616 10.736585790808087 141 124 111 1.2231127143948148 2 9220 1 7791 3 9923
1940 -2.0332798923506386 8.5991682925213553 23.755552739489676 79 69 53 4.8670106891543936e-05 2 6571 3 7859
1127 9.0149585967662347 2.0849642821584711 9.5189854731999866 92 55 29 0.79968643685083851 2 9230 1 7661 3 9927
1128 5.4613979467627178 2.6649383576067067 9.9707747752207325 84 48 21 0.73147725655307794 2 9235 1 7665 3 9935
1129 5.4613979467627178 2.6649383576067067 9.9707747752207325 84 48 21 0.73147725655307794 2 9236 1 7666 3 9936
1944 -11.222404791562997 8.6758669602824305 23.855115681745829 201 169 128 0.2001772759019233 2 5501 3 7881
1130 7.2262122397175093 3.2137301827047802 9.858636767560796 89 48 19 1.657240481307334 2 9240 1 7670 3 9943
1133 8.1099853388344201 4.2363838759498211 8.318785931969078 58 37 24 0.038197787696582414 2 9254 1 7692
1948 0.021162542811862306 8.6577663492471526 21.630572893380318 24 34 14 0.085869195302119922 2 5555 3 7886
1135 17.188714078478423 -9.8453520390490699 17.066276259481096 187 217 244 1.2718567450557485 2 9264 3 9955
1136 19.221472198812368 -8.8671154690307166 16.612902301734628 81 59 47 0.75879583559546337 2 9267 1 7862
1137 19.13534609787407 -7.5645598771693363 14.867645582769843 37 41 6 0.32510638276707771 2 9271 1 7867
2016 -4.8120513214469867 7.583375865345551 39.609043630094952 39 32 20 0.087009343080524021 2 6442 3 8456
1138 7.2012148097803621 -5.8893618607088873 13.083538283008989 176 158 131 0.28971341325113453 2 9274 1 7872
1141 5.5492365468156066 -0.43548834794629876 10.935876530082512 151 138 119 0.24526758985150887 2 9295 1 7778
2020 2.6015691158656473 2.1132977559901178 11.525520252272937 124 110 89 0.2514474138868481 2 7311 3 8485
1143 5.5460185641943136 1.2618309605074098 11.16300487747686 141 120 103 1.3775051076369842 2 9304 1 7796 3 9987
1144 6.488382680859492 1.7082546679272039 9.9945400667997308 255 185 119 0.10152586608400038 2 9307 1 7800
1145 9.3658335636409458 1.7958499198458309 10.132791933980188 255 193 131 0.80018197825447479 2 9308 1 7801
2024 0.36443444086208204 8.3254044648995702 27.034798820880848 58 48 38 0.062270130368407423 2 6542 3 8495
1146 8.0427465252156018 2.1209260410284663 9.8081680295973399 70 37 16 1.9621123969973773 2 9312 1 7802 3 9926
1149 8.6676165171730624 3.9043512477133766 8.5176785917426407 65 44 29 0.85900908411668953 2 9320 1 7684
2028 -3.4976307068278092 8.4478562882450881 26.559475655986482 96 94 77 0.45269430243752939 2 7381 3 8505
1151 -31.119238928872651 -11.458121580631703 75.123962577857768 221 202 168 1.7653457740593996 2 9348 1 7970
1152 5.5239409824433912 -1.312307345249951 11.167339668933895 202 183 156 2.7490641405672593 2 9350 1 7974 3 10008
1809 -12.630042561555504 8.5618259255933786 25.094475332172919 201 169 128 0.051997762230822607 2 4019 3 7004
1155 0.35766286154055621 2.2123157769306272 28.069451155911313 101 75 62 0.94170553983436267 2 9361 1 8033 3 10016
1156 4.2254666557547234 1.3580601978128144 11.120422642001001 114 101 87 0.91077123487339762 2 9365 1 7983 3 10022
1813 -6.273472261643529 8.7195951651120414 22.430383097114067 70 61 48 0.01563722848243046 2 4147 3 7009
1157 3.7409786199612167 2.4498717597050277 11.351793087081198 117 103 88 0.67332287985096217 2 9373 1 7990 3 10056
1158 8.0202441165643705 2.7663061173037593 9.4582074975406236 85 45 15 0.32106561204550815 2 9378 1 7906
1160 8.2903821475022035 3.7352294820044127 9.166488433669512 255 182 123 1.9828111279689646 2 9384 1 7815
1817 6.1213120261048344 3.3989357752273524 9.8970437006572549 153 110 77 0.011326561582488157 2 4056 3 7022
1163 7.1586535270798581 4.0002921709509405 8.9422884219780023 255 188 129 0.51433614567142882 2 9420 1 7915
1164 11.307443550045388 -1.3091662864848912 11.808523621187801 36 33 6 1.6727780220268182 2 9449 1 8066
1821 7.3896401844714177 -6.8235801271583103 12.828794934767057 79 64 45 0.055426845257186275 1 3885 3 7137
1165 17.848280987134881 -8.7347348155503806 13.529719363393335 45 45 41 0.13253711125774839 2 2465 3 27
1166 8.1184757938257555 -5.8696740345188294 13.020091309973285 193 173 145 0.10784559458983338 2 238 3 150
1168 8.7937738612777743 -5.1723486922687885 13.009859810499206 191 172 143 0.17626438128046251 1 528 3 257
1889 -4.2941960060355973 4.5104856920422636 37.693915677685013 93 84 73 0.33107033250042672 2 5275 3 7695
1171 20.328330149363673 -8.5429449762354253 18.328949831092427 190 224 248 0.1436203076841725 1 346 3 272
1172 -49.291797468068026 -46.142933053806743 123.75547558520344 53 61 66 0.10254618506009065 1 389 2 341 3 295
1893 3.7842412960381386 1.0539073193441488 11.437711898298298 146 130 112 0.0452282459291726 1 4473 3 7704
1173 -48.233314644976396 -46.911731924478609 124.44673154144317 128 159 172 0.47146652857836013 1 391 2 342 3 296
1174 -42.093540983204527 -46.288161129634311 122.59210000494592 73 79 84 0.019279049112808574 1 402 3 303
1176 7.0204050181984359 -4.5458449695832437 13.210624174371343 184 167 139 0.0347106125194186 2 485 3 327
1897 -24.614758060070059 6.0068723508785684 38.97417760339949 143 125 100 0.23274359082836676 2 5292 3 7727
1179 21.605594774864116 -8.2739850311739414 21.264539646429036 92 101 56 0.059503484679679676 2 384 3 392
1180 21.67431547549004 -8.1775902561880773 21.148272777373069 125 138 72 0.013462502216632706 2 387 3 393
1901 -10.756390981452778 7.8062198709701045 36.583896777756664 200 167 125 0.087381447021609882 2 5323 3 7748
1181 21.773592522607906 -8.1771732252938438 21.077076452721428 140 154 75 0.033761769080290618 2 389 3 397
1182 21.773592522607906 -8.1771732252938438 21.077076452721428 140 154 75 0.033761769080290618 2 388 3 398
1184 0.54139566913892145 -7.7439444614326627 25.929192582630368 80 52 29 0.14293111522156035 1 625 3 455
1841 -48.939959939610475 -45.171416795861994 124.63257394128073 127 162 175 0.44629101775907526 1 5020 2 4566 3 7287
1189 18.291834848680026 -5.5904273478288093 20.019330209303231 22 27 13 0.10750064769210457 2 629 3 561
2004 -10.405241843789639 -1.0425160637838413 50.143121563481436 51 46 41 0.13599478926305628 1 6149 2 7201 3 8366
1192 20.359201241996455 -5.38003032561108 19.141092311825957 48 60 37 0.11686177772126241 1 778 3 577
1849 9.049882209636376 -4.4890893466114576 13.027631544669291 247 230 195 0.051151080072616109 2 6950 3 7334
1197 -37.73606989231746 -17.209739537076558 115.9078911747584 91 90 87 0.019562114397814877 1 984 3 909
2012 7.2436450949951485 1.0420157149832248 10.903702439341451 143 120 99 0.011296192969843993 2 7267 3 8439
1200 -8.514529059857928 -5.9176818500364528 46.987795798448552 96 88 73 0.023956351064852454 1 1161 3 1043
1793 -11.941291928695689 8.439818070366627 26.704667337956785 171 145 108 0.023717354544582986 2 4027 3 6951
1203 1.6235432050020253 -3.3185714890561253 24.33301283896634 11 5 1 0.083878163374198705 2 1134 3 1059
1204 1.6119220858416794 -2.8390815680966712 24.213661128352189 37 24 12 0.088689204328787435 2 1135 3 1060
1797 -14.46515492151781 8.4529983840597449 26.934194171644801 205 172 127 0.25056722041004659 2 2084 3 6972
1205 12.756740113144243 -1.4174026247655969 12.181416995536321 48 53 11 0.033215617494605429 2 1148 3 1072
1206 -4.3462984262931457 -2.9980929009610096 36.571443606530316 15 10 4 0.096264971436274438 2 1263 3 1158
1208 9.8036705668281172 -0.88636731837951022 10.641307628050873 202 200 176 0.078569280978949843 2 1280 3 1188
1801 -12.017261199305354 8.538414279088709 25.054518254215758 200 171 127 0.12294642253691412 2 4024 3 6981
1211 -11.860640632514032 -1.605923945735948 49.507925857926857 57 53 48 0.21569048198138177 1 1328 3 1219
1212 -9.7465588107942125 -1.73814998620842 49.903917289342409 77 72 63 0.1180858264348692 1 1335 3 1221
1805 -1.4620758105241696 8.5858405238205826 23.309111966505281 33 44 20 0.086617348101426184 2 5512 3 6988
1213 -7.8243539918655447 -1.4103375672425702 45.710849608969909 127 116 99 0.032057161517939511 1 1336 3 1222
1214 -6.9368680454753919 -2.3592612460399742 43.675439895916504 144 132 114 0.17837165657375212 1 1278 3 1223
1219 19.0265437849433 -0.27920147419790875 15.688149619412055 122 97 84 0.0025476653567075239 1 1379 3 1307
1220 20.969305432220494 0.0075877315269055889 16.352522214655998 30 41 24 0.089945462271552909 1 1382 3 1312 2 5146
1877 -6.2500609683845791 -2.0443777071125875 42.222126045217038 121 110 92 0.11091987205782185 1 6127 2 6281 3 7606
1221 -0.10106851089226498 0.30315780309014828 28.579834617602476 143 133 115 0.090448730371768579 2 1441 3 1383
1222 21.009902339960892 0.57940740784532507 16.114993596348743 43 57 35 0.061842607789741849 1 1468 2 3661 3 1405
1227 23.614256654302672 1.6400312748554529 17.930331816205133 19 26 10 0.030973944921617175 1 1536 3 1485
1228 23.61061905121575 1.7156417839044109 17.865863549625018 18 26 11 0.037032375888610809 1 1539 2 3731 3 1486
1885 9.2839228495983193 0.014222968979127892 10.65399037286201 179 162 141 0.35043194872022265 2 5120 3 7656
1229 23.61061905121575 1.7156417839044109 17.865863549625018 18 26 11 0.037032375888610809 1 1538 2 3730 3 1487
1230 23.719555850646842 1.8529894489195646 17.778781467662064 56 73 50 0.17342917078495623 2 3774 3 1490
1235 17.40834217332446 1.7173101341516528 15.823808868076441 144 112 83 1.4739752356790194 2 3759 3 1556
1236 9.8195272991663209 0.73999439339195205 10.083328086616071 97 75 40 0.0090450346429251996 2 1718 3 1557
1957 -0.7022988426201433 -12.355634601794414 24.929585483221334 23 13 2 0.15293579358003512 2 5768 3 8017
1237 23.14664409761447 2.102413552759014 17.47262467672719 58 72 51 0.050078419298079782 2 3770 3 1562
1238 -6.393413734865959 4.7614540808299273 42.966317507027 119 107 90 0.041129170732590932 1 1558 3 1608
1243 9.0781883020982743 1.1672909330265289 10.735201737560404 82 65 52 0.042017368300261669 2 1768 3 1634
1244 -2.0062930186561125 6.4006740255187387 33.329074964009635 69 64 51 0.051344538930930772 1 1604 3 1723
1965 17.50692704971037 -9.7664480294527785 17.780270781050572 187 219 248 0.27683465331925128 1 6458 3 8062
1245 2.8969160180833726 1.6387449367788511 11.507398862890867 125 116 95 0.095097785677456609 2 1762 3 1731
1246 9.7040938194154034 3.2499748320167057 9.4562185962945797 165 131 102 0.14729685369561674 2 2131 3 2123
1248 4.5666053656943983 -6.8188536859228126 13.095285093347506 135 102 70 0.20156102213617813 2 115 3 2510
1905 -4.8220339752460077 8.0788766699939512 31.033610107512118 35 44 19 0.29634236181089491 2 6480 3 7764
1251 -11.332329919828497 -26.037044233629871 53.068720709013796 77 64 50 0.13851712962788287 1 138 3 2566
1252 -8.2000547571780764 -25.936100347443155 52.59493636485314 85 71 54 0.022281645169012307 2 160 3 2567
1909 4.4409506557254952 1.9183558048647027 9.9201321609141502 219 165 108 0.11797138859402198 2 5326 3 7772
1253 1.8404110199741646 -11.341614760946291 22.772863650215871 0 0 0 0.098225724263310166 1 217 3 2581
1254 1.8404110199741646 -11.341614760946291 22.772863650215871 0 0 0 0.098225724263310166 1 216 3 2582
1256 -1.4231658122122015 -12.828863293752557 27.596203690593345 36 20 5 0.085244295540764986 2 223 3 2614
1913 -1.788581995110593 8.2861114716305497 27.931186346602754 31 40 18 0.14260417181482712 2 6484 3 7782
1259 5.3710656610016114 -5.711639936026363 13.286951718145248 210 191 159 0.002475690285385853 2 2723 3 2628
1260 5.4317653394530332 -5.7239721888205475 13.296607617619532 243 226 193 0.084493030517214018 2 2724 3 2630
1917 0.62353892841206293 8.3073637839725372 26.979041686729428 57 48 36 0.21381490432652142 2 6543 3 7788
1261 5.4561665140949955 -5.6545496960322001 13.29392318026574 227 207 173 0.00066872452669790414 2 296 3 2631
1262 5.7907247957092762 -5.9026899921576934 13.250085682176572 84 75 60 0.060065773459643305 2 234 3 2632
1264 8.0775057532990733 -5.8283495816716888 13.014866966323854 157 142 116 0.025786399449047519 2 239 3 2636
1857 19.326608827683678 -5.8620546151489341 19.727656524094286 21 29 13 0.013698811959674081 1 5138 3 7401
1267 8.6310527702006592 -5.7739766477322032 12.977576383127316 217 196 163 0.045650384924906584 2 240 3 2640
1268 8.809484759021041 -5.8524404936143499 12.944847454444972 194 174 145 0.08843977433481523 2 241 3 2641
1861 -10.102400401979104 -9.0630786604142077 50.197740947332058 120 113 98 0.089210409765552279 1 5218 2 6152 3 7477
1269 8.809484759021041 -5.8524404936143499 12.944847454444972 194 174 145 0.08843977433481523 2 242 3 2642
1270 5.5108694575364936 -5.3736599298986292 13.312006794239393 174 158 131 0.031987179100863045 2 297 3 2694
1272 5.5284785334406079 -5.2841565996760531 13.321187007967632 50 44 33 0.15040965470406489 2 2725 3 2697
1865 -9.8875284721805521 -8.4725976918734425 49.714775927815722 127 120 104 0.11558273700171225 1 5255 2 6153 3 7518
1275 6.9510099259661917 -5.2573352556798092 13.172873019566016 192 173 143 0.046879745808503813 2 2729 3 2700
1276 -4.2976626615907456 -13.648532552642958 34.04311069961598 7 2 0 0.025290963051549237 2 355 3 2738
1869 0.44456102825037275 -4.0237040358367722 26.522099155899898 34 19 4 0.049061463840326974 2 6209 3 7524
1277 1.4985548791599006 -8.9996592026343265 23.725158516803276 21 26 4 0.37874753275122774 2 359 3 2743
1278 6.1108335418358397 -5.0478772445177054 13.266638061297961 176 160 132 0.0060664929715607638 2 365 3 2746
1280 9.073557338080505 -4.9493129605035939 12.971824485835249 227 206 172 0.051465050975514508 2 2786 3 2752
1281 17.310292016308111 -7.6277982916418319 16.73075677259704 23 22 5 0.079485733044321716 2 247 3 2757
1712 21.457161825190081 -3.3023676523028849 15.600950486415236 41 44 16 0.27510734301249939 1 4230 3 6492
2237 4.7272915225677492 1.4497924566362497 10.873525219552777 6 2 0 0.49322077333488323 1 7795 3 9989
1282 19.004024052328568 -7.0588116342094205 15.295551502855329 97 92 87 0.09972987152203637 1 444 3 2758
1285 1.3605688120214563 -8.6633269284451142 24.25070172714172 83 65 46 0.02455979557211798 2 475 3 2812
1716 -3.4069031460529757 -4.7654479792345352 35.477285396309696 112 103 88 0.13855036010162328 2 3358 3 6570
1287 5.7501956226664133 -4.4742785665811677 13.351026499195555 187 170 142 0.11071112117599301 2 481 3 2818
2235 4.917633956614754 0.42316708874195175 11.207267799259387 49 43 35 0.20821962918145626 1 7790 3 9983
1288 5.9585656172417281 -4.6525299416551178 13.332917433818032 206 188 157 0.16807126531646849 2 2863 3 2819
1289 6.0598088175884044 -4.6158253541666818 13.318943499246085 211 191 160 0.48609744136313954 1 637 2 482 3 2820
1720 0.093732585389455725 -1.5998271476414641 28.012637788834301 98 77 56 0.0047836277422947486 2 5065 3 6623
1290 6.6812156476872211 -4.5461846141708646 13.237511374249459 176 160 133 0.20046957224539547 2 2869 3 2821
1293 7.9726055796771034 -4.5606167304352478 13.107449038835144 215 196 164 0.19907803229946494 2 488 3 2824
1724 19.974890801972702 -0.78138609636428125 15.682022392743264 24 15 7 0.3025519232097269 1 5360 3 6631
1295 8.4318342549967262 -4.5276565518467375 13.058724137909637 146 132 109 0.054049254360175977 2 491 3 2826
1296 8.412697922634484 -4.4839098312636114 13.063209078035408 250 232 197 0.046286680116899709 2 490 3 2827
1297 -43.653650673077799 -41.917244603741388 128.73774126597695 57 67 74 0.045586460806900826 1 489 3 2858
1664 3.0328384082310942 -6.6766932950557329 13.304344198757533 40 24 10 0.02789803474507218 2 4403 3 6029
2189 -4.3687892603885139 -5.5034501137052754 35.587531198882743 60 49 38 0.062465291058320147 2 8886 3 9676
1298 -0.34021016727209102 -9.0100761317147047 27.883423607276523 95 77 56 0.12380392033193852 2 471 3 2868
1301 0.54175682802837644 -7.6247862711386132 26.005181582350531 37 19 4 0.022249316323481243 2 597 3 2927
1668 0.6145255819639186 -11.771839722813374 22.905958262903461 2 0 0 0.07987711820291539 1 3811 2 4396 3 6051
1303 8.0579443181345578 -3.9484358268423891 13.13436780082877 187 170 142 0.04955422996812052 2 599 3 2935
2187 -1.5287406891221011 -9.3702823758845533 30.005415559782136 135 130 118 1.0584996018646649 2 8614 3 9657
1304 8.0579443181345578 -3.9484358268423891 13.13436780082877 187 170 142 0.04955422996812052 2 600 3 2936
1305 8.1320050559746644 -3.9520700272271716 13.134087141966154 193 175 147 0.055114924470223155 2 602 3 2937
1672 9.9162827012000214 -7.0032041040427924 12.680060247316684 122 96 66 0.38447729634412886 2 122 3 6066
1306 8.1320050559746644 -3.9520700272271716 13.134087141966154 193 175 147 0.055114924470223155 2 601 3 2938
1309 -2.823953411296674 -8.6455604510593709 33.172792601243572 71 58 38 0.00086352888135153398 2 702 3 2998
1676 0.25974717928442242 -11.209770069083717 23.403705067808236 63 75 27 0.024043094169716339 2 4430 3 6099
1311 4.3699246817566859 -3.3074117596474402 13.552283618370023 205 187 157 0.073345665542981067 2 705 3 3007
1312 18.572347583320024 -5.9070261036554781 20.046089737410082 12 16 5 0.028407578530786005 1 657 2 2975 3 3010
1313 18.572347583315128 -5.9070261036538838 20.046089737404831 12 16 5 0.028407578533289176 1 658 3 3011 2 2976
1616 -0.59993220339974496 8.2779370368648664 26.956876345832164 66 57 43 0.32062774752037537 2 4039 3 5702
2141 -1.7148204174153883 6.6299333709011359 32.582812381414627 77 71 58 0.086257140329176515 1 7462 2 7966 3 9334
1314 18.416060227288753 -5.5644987984756691 19.938944522452577 27 33 17 0.020326097968662138 1 762 3 3015
1319 19.948635561636234 -5.5311125170132103 19.356825305570123 18 25 11 0.035485746261407609 1 2721 3 3026
2139 -1.7254951906658547 5.8853321606052553 32.707559874573079 82 75 61 0.21197773477414972 1 7152 3 9332
1320 -7.6847523778548679 -11.046796643231772 46.013216294614359 83 67 44 0.13131689436390312 1 2682 3 3114
1321 7.1938500927895905 -2.9855255780702934 13.28800288330746 188 170 142 0.03192602789243499 2 829 3 3124
1624 -0.1570514767069533 8.4216653752927328 25.868662431431176 67 58 45 0.087147295737562108 2 5456 3 5740
1322 7.2150892423563509 -2.7744761244688383 13.311610818737163 182 166 139 0.057864273178438369 2 830 3 3125
1327 -35.377486383076381 -13.26079581734253 69.597536687618728 68 62 52 0.10827070249785631 1 821 3 3187
1328 -33.915377140028603 -13.061821586063651 69.654563863997865 14 9 3 0.08126086364713378 1 825 3 3191
1329 2.7715096173939098 -4.465595872027083 22.002499299654936 58 47 31 0.20524039087023493 1 867 3 3258
1696 -9.5588685573274841 -13.647996420552776 48.449647954848146 61 46 30 0.71685270956313574 1 4042 3 6306
2221 0.97678490015978259 -7.1468948998123976 24.858483708673528 82 63 41 0.77815780117330946 1 7881 3 9892
1330 6.4284490388289059 -2.5933715608432295 13.391133550158205 189 172 144 0.065120711075198567 2 828 3 3260
1335 18.161777075505583 -4.5200282217031651 20.158234903733099 26 31 18 0.029461881999370991 1 893 3 3268
2219 9.1874184528221186 -6.4473621134552266 12.894141193499394 45 37 26 0.38829600029554578 2 9174 3 9885
1336 18.161777075505583 -4.5200282217031651 20.158234903733099 26 31 18 0.029461881999370991 1 894 3 3269
1337 -4.5435563730425352 -6.3400979414913312 38.27525125369737 110 102 87 0.057539941733603106 1 2853 3 3366
1704 -33.979689801982708 -14.380481636532531 68.346468204347218 206 157 75 0.0077430373015962249 1 4169 3 6394
1338 -1.8500884149911949 -4.6319434000123252 31.70436880484398 84 66 40 0.04965251979417952 2 1127 3 3367
1343 2.2859539600115864 -3.4845301583023067 22.37302999591348 92 74 55 0.090367324415825567 1 1019 3 3379
1344 2.7820637999287965 -2.1659588170411213 13.790119776829401 134 121 101 0.091416475197560437 2 993 3 3381
1345 8.327678115524904 -2.0057372999411371 13.241857406018095 197 180 151 0.095681584856414037 2 3262 3 3383
1776 -14.864754023627643 8.3411016128842981 29.275554697078423 162 141 109 0.18603975025669028 2 3922 3 6918
1346 21.347184876613078 -2.8396660777192508 15.719397881719569 92 104 50 0.068483916771212988 1 2895 2 4897 3 3403
1349 -29.98784517487648 -10.740482131307637 100.3212515547382 45 44 43 0.17031063349887735 1 2935 2 1242 3 3438
1780 -1.5177658563969554 8.4428432140791063 25.357653485122732 30 40 18 0.016061234140360387 2 4036 3 6924
1351 -26.961957256312886 -10.889892797250541 103.48524401463371 125 112 96 0.099104530199049898 1 1151 2 1249 3 3445
1352 -4.0842514838299513 -4.7581015173794805 36.911034292000714 72 45 33 0.046836166653399756 1 1170 3 3450
1353 -3.6085592031473781 -4.7394401135874293 35.878256495344438 62 47 35 0.064559391745000916 2 1126 3 3452
1784 0.66581581398341783 8.4430200929707091 26.362867636181619 59 51 40 0.091586264002024881 2 5457 3 6929
1354 -3.3366318818135046 -3.6266161504686329 35.641176414550664 131 121 104 0.052510878904531572 1 1173 3 3455
1357 -1.9438075860493214 -4.0465566180589017 32.026734523497694 71 53 33 0.10433357842936392 1 1175 3 3459
1788 -14.346694456936985 8.4118038761131828 28.021841337284357 165 143 109 0.24166669799441876 2 1978 3 6946
1359 1.6188609939529859 -2.6454358800022488 24.500164609033721 121 111 96 0.063282262996645217 1 1182 3 3465
1360 7.8537081037816394 -1.5057705462994624 13.317649318306302 175 159 134 0.012631874805862925 2 3367 3 3471
1569 7.2414282533554291 1.0070433674385915 10.907542178159007 144 120 100 0.010992136050528633 2 3713 3 5548
1365 0.22858407735941028 -2.5626804830671954 27.764801370016233 113 103 87 0.18881031510226787 1 1180 2 1271 3 3542
1732 0.32207832007317666 2.0070479270482267 27.559858554669237 12 2 0 0.047900555276770167 1 5428 3 6749
2251 3.3204597242859659 0.88018775362170643 11.427400064250646 125 112 100 1.8996760944186093 1 8118 3 10089
1368 12.514166027786969 -1.1961106649308888 12.488476354486837 130 112 105 0.26172452887070446 1 1202 3 3553
1577 -20.232894837387917 7.5275264198496705 40.615807761541966 181 155 114 0.23480973625750012 2 1863 3 5584
2082 6.0344621304982571 -0.41668208612006441 10.93480168385028 152 141 121 0.063846517601406957 2 7870 3 8923
1373 0.23653775055098253 -0.83661117262497986 28.009539641968662 129 116 99 0.024004993312896242 2 1357 3 3635
1740 -24.672261797043081 5.4337686243078496 39.045435208430781 137 120 94 0.14592825034422169 2 3787 3 6799
1376 0.99484614406733485 0.11036314222744127 26.247192171263059 139 129 110 0.062106330188611031 2 1444 3 3687
1377 4.6895662746844149 -0.025795112933832798 11.187611064355488 147 132 113 0.00081764083520934386 2 1450 3 3692
1680 2.1943308387971849 -10.456078552937488 21.668134881598593 20 12 5 0.41809373396659499 1 3874 3 6104
2205 -5.6826475661810356 -11.07022362894558 41.600241688495657 51 40 28 0.62908342288689101 1 7884 2 9049 3 9799
1378 6.2308591292069488 -0.087990059416623939 10.951166812499226 58 49 40 0.0080375104983347219 2 1451 3 3693
1381 -30.610493477871451 3.3804763530557924 80.697234444147895 139 120 94 0.063324368419005142 1 1429 3 3739
1684 -3.2411638970129846 -13.517012122795153 31.777427754579698 0 0 0 0.02318533861312147 2 2715 3 6159
1383 1.0551785690715867 1.3918268125082209 25.498821191947105 94 76 57 0.098171292970303858 2 1686 3 3750
2203 -9.6637526480965619 8.5289132994609389 22.59851941818523 195 169 142 0.84807859699521537 2 8028 3 9757
1384 23.511210528534878 1.5560221302677257 18.01648110713057 56 69 51 0.26509130437931311 1 3203 2 5253 3 3754
1385 -22.878509924677214 1.762599316502315 34.812453277455681 148 133 117 1.1691316226440809 2 1506 3 3785
1688 6.0722728845284619 -5.0668253553622256 13.222919844807867 170 154 128 0.18878981921075555 1 2526 3 6200
1386 -27.253755296000129 6.1021099968570738 63.268958442847747 181 156 119 0.16323258095692234 1 1498 3 3814
1389 -9.2787006267689538 6.0117708960735454 49.306508763578108 37 33 25 0.053354738762637181 1 1555 3 3854
1692 1.3373694581191558 -8.7574261476506248 24.167084647155267 16 8 1 0.44779725306091145 1 2512 3 6241
1391 -6.1615719370900832 4.9020504834238992 42.398720306534493 85 75 64 0.023462202620473223 1 1559 3 3857
1392 -5.4392073242200851 5.4041083312213782 40.876609243660063 81 74 63 0.031683950264751015 1 3230 3 3858
1393 -4.7302712718537405 5.1595243871255718 39.282056076669662 126 116 99 0.0033998687494983275 1 3231 3 3861
1760 -15.11504973898904 8.1041081785873423 31.069031548913422 168 143 107 0.0390407768947513 2 3924 3 6874
1394 -4.9174221914048051 5.6248084646992895 39.741637655978479 113 104 87 0.17082673706580648 1 1563 3 3863
1397 2.9090213969726189 1.0957845009306255 11.48717545167618 113 102 86 0.0092014461703106426 2 1698 3 3868
1764 -4.1406249731896034 8.2568958002887776 29.250976994712481 43 54 23 0.44129647348099232 2 3942 3 6886
1399 3.6922522348246529 1.0986396819089346 11.391532587614636 112 100 84 0.1900379133643571 2 1701 3 3873
1400 4.1545116593187315 0.96074398412135587 11.328673372984747 131 116 98 0.023907602926991817 2 1705 3 3875
1401 4.3607457663921343 0.90315325767839272 11.293591818385728 108 92 79 0.017042427351524114 2 1707 3 3876
1768 -1.4709998552319046 8.2362578720235913 27.599516270048429 27 36 16 0.13011701268137904 2 5391 3 6893
1402 5.8051539866373005 1.0245185493803364 11.12231239678438 128 106 90 0.025326195770910068 2 1709 3 3878
1405 7.377612682721912 1.0349421436004289 10.871668127172816 111 90 76 0.0013540120237162672 2 1716 3 3884
1772 0.76776292891369846 8.1983824896470097 27.535755524800241 38 26 15 0.40180279523063872 2 5397 3 6898
1407 -10.310640713624609 7.0322599290408325 48.113504476006064 60 59 52 0.093392114160288364 2 3800 3 3907
1408 -3.359708192627421 5.3144816582038139 36.237486178419438 90 82 69 0.082291577038892089 1 3233 2 1816 3 3908
1553 -7.2062000914924509 4.2466328301833363 44.638063042473249 95 85 71 0.57157119964382208 1 4462 2 1756 3 5493
1411 2.9088225433238617 1.4328959289355716 11.485258561185116 138 125 110 0.023801149387205348 2 1761 3 3916
1412 -20.587214214999939 7.5068316619435143 41.300003347409444 207 172 127 0.10708945342724192 2 1862 3 3924
1557 0.47134094345532002 2.1412299653011844 27.15002997346906 128 99 83 0.055849096216810133 2 1691 3 5500
1413 -13.950854555922335 7.5496309293870363 40.629891168219615 210 174 130 0.14642731498955702 2 1875 3 3930
1414 -13.950854555922335 7.5496309293870363 40.629891168219615 210 174 130 0.14642731498955702 2 1874 3 3931
1416 -15.855366753055492 7.6096341899254236 38.652620368164101 204 175 133 0.01599344389753338 2 1871 3 3979
1561 -2.9485087835381973 4.2970925373082443 35.024959765339631 129 118 100 0.29138924307559988 2 1759 3 5536
2072 -1.2600485948263362 -2.8618395881814633 30.957132422245273 74 59 42 0.02404600629643151 1 6651 3 8887
1419 3.1374621245416887 2.0985425452339928 11.444716707595635 144 129 110 0.038634789073668838 2 1819 3 3989
1420 3.6835066047151255 1.8255317508923632 11.424797718543205 62 54 43 0.016947672130912177 2 1820 3 3991
1565 6.8874987215050636 0.98108225464471388 10.965934470388023 47 35 25 0.022650680863230924 2 3709 3 5544
2066 -4.6596353195225602 -7.4247745699031817 38.106373629374794 87 78 62 0.25319266938096341 1 6599 2 7792 3 8816
1421 4.2804690038652184 2.0971332944261794 11.253429442994626 76 66 53 0.015409827081051245 2 1881 3 3995
1422 4.2670465596712575 2.1493463765042775 11.26296151285192 81 69 55 0.054930332608832538 2 1882 3 3996
1424 2.0417540794592552 6.2024501582618417 24.273614916531074 100 92 79 0.12724405737049505 1 3321 3 4049
1633 -12.233589763786172 8.4110958390895796 26.451362395013362 202 172 128 0.13001729451344748 2 2090 3 5784
1427 -6.7045211776914577 8.3291576260541245 28.771627784721819 73 70 59 0.010725952742142133 2 1994 3 4084
1428 -0.83406793273025903 8.2968923673635544 28.355625957009437 65 58 45 0.029760545059655197 2 2002 3 4092
1637 -0.59345934994633043 8.5267646613970776 23.557453824393576 33 44 20 0.1709386997443364 2 2204 3 5799
1429 -0.83406793273025903 8.2968923673635544 28.355625957009437 65 58 45 0.029760545059655197 2 2003 3 4093
1430 -1.158420705623169 8.2566028624537324 27.632937858416035 28 38 16 0.042372789514901421 2 2001 3 4096
1432 2.1028726351193421 6.8292026502567955 24.291164200002719 47 42 33 0.034809390527062493 1 1724 3 4102
1641 4.8485149908089511 2.8665334547556833 9.9049381962380263 194 135 87 0.028921457083427943 2 2010 3 5814
2152 5.6188031737290514 3.0247523890413848 9.8678760781683028 82 53 31 0.075580601223664154 1 6235 2 7993 3 9375
1435 -10.631565097117161 8.2794838888889348 29.514419309647504 159 140 110 0.83331438297181859 2 1988 3 4136
1436 -10.631565097117161 8.2794838888889348 29.514419309647504 159 140 110 0.83331438297181859 2 1989 3 4137
1645 -11.289739380629877 8.5098604242980294 25.171195581230585 170 148 115 0.030344396030661146 2 2094 3 5830
2146 -10.155424097554418 8.1993279772188554 30.316545773637202 200 170 127 0.056484321103961913 2 7992 3 9351
1437 -8.5456128887245804 8.2815986157098891 28.769085649489153 73 69 58 0.11246521677553692 2 1992 3 4146
1438 -3.6991718892007124 8.4135050003312735 26.571526999385132 79 75 60 0.003956357956298992 2 2106 3 4150
1440 0.17587645411976188 8.3382315326149055 26.547051765729886 21 29 9 0.1186219446132134 2 2111 3 4163
1585 -16.006105099793221 7.6265167731303283 38.729600732360758 208 176 131 0.05063188943471307 2 3855 3 5615
1445 -6.3540246493131285 8.6366892092065761 23.663786994038041 69 67 56 0.064728339076832259 2 2197 3 4252
1748 -16.041954001085905 7.7801517006003458 36.539485436791679 203 175 128 0.027363843623106753 2 3854 3 6837
1448 -0.57263268075556129 8.6196654502880659 22.050334491458369 100 98 91 0.02859432566145206 2 2263 3 4264
1593 -6.7777982616203722 8.0596677557652772 32.386311440026638 40 50 23 0.056908297657636012 2 1923 3 5652
2098 -21.552145724025358 7.4007692519727692 34.488403990730795 161 144 116 0.27256493310573354 2 7321 3 9003
1453 0.78672323425435642 -12.089488354652024 22.113722071638541 28 36 11 0.1346818483040095 1 159 3 4510
1756 -4.723072044176515 8.1263362431865307 31.26977980339332 29 38 15 0.055269883762960006 2 3888 3 6859
1456 4.5616958670180452 -6.6487464981882844 13.13585562138884 44 28 9 0.074678211346141082 2 177 3 4517
1537 -22.566083634097154 -0.18848247376696378 34.46958223286093 131 121 105 0.25624366032765628 2 1412 3 5365
1459 6.3970717804387638 -6.6550636329990063 12.962528830687056 46 30 14 0.021261480077794791 2 2609 3 4559
1460 -1.0547853355530434 -13.178312537938776 26.99665597938089 0 0 0 0.047691656417423893 2 2591 3 4581
1541 9.4904363144370301 -0.027334702138290923 10.597628468288171 31 25 19 0.039959546017551223 2 3580 3 5406
1461 0.56467398399014934 -11.379068092076633 23.164432925199673 7 11 0 0.044600936200812041 2 171 3 4583
1462 6.8150415413705181 -6.4068050786357045 13.091280829679853 28 22 14 0.039090349528228409 2 2611 3 4589
1464 1.3207576769567542 -10.873338092527813 23.525889560211404 0 0 0 0.46435700219944259 2 227 3 4612
1545 1.0976908202097149 1.6977630378311042 25.617086444949102 77 61 40 0.14067607974530608 1 3169 2 1690 3 5455
2056 -1.775880342838712 -12.582624663428529 29.763401166834441 58 33 14 0.022416843563639197 2 7640 3 8695
1467 -3.6511477414305995 -13.296664952851755 32.235043344315748 9 4 0 0.016256482484830258 2 2716 3 4658
1468 -1.7503197463996358 -12.716486369816151 29.738883048380266 63 40 21 0.074082229460576549 2 2718 3 4659
1549 -31.711494416594771 5.3628006147640592 71.528763432562044 143 124 96 0.11991549801007197 1 1497 3 5486
2050 -7.1475627181688361 -29.118084456714286 52.942426923539607 35 28 21 0.16204359018836156 1 6406 3 8648
1469 -1.7503197463996358 -12.716486369816151 29.738883048380266 63 40 21 0.074082229460576549 2 2719 3 4660
1470 1.5523687911280843 -10.583871668470996 24.217886801106129 59 46 31 0.21414368193453584 2 4480 3 4661
2048 7.7772652404449429 3.9219487029944076 8.5652487776106945 80 48 22 0.12137404696377943 2 6638 3 8612
1475 5.3686570960165838 -4.7917520872914912 13.35646823102781 195 176 147 0.061877653204793187 2 2784 3 4719
1476 17.057123040934133 -7.5556824230200803 16.996183961232472 26 26 6 0.13808818464387146 1 2454 3 4727
1621 -11.008467823465615 8.302441740947625 29.258880065554195 198 168 124 0.037630745599064964 2 1986 3 5730
1477 -42.423397908995142 -47.196546912085502 123.08730935787315 72 80 85 0.33477733701891071 1 401 2 2764 3 4760
1478 -41.813899414983752 -47.074359527693339 122.88858479292483 127 162 180 0.017584241414657822 1 2408 3 4763
2136 1.2065171258421978 1.7940099701481653 25.634163320938448 32 22 14 0.18855232252439438 1 7127 3 9316
1483 0.51392468537334324 -9.4367972140440237 26.47038370236405 38 26 11 0.32574533720081711 2 4574 3 4778
1484 0.71848780955724512 -4.7384421717656986 15.256625369259442 78 58 35 2.5754435111644223 2 596 3 4779
1629 -14.712281047637259 8.3436954150954357 28.153369805777512 172 148 111 0.033720643886673236 2 1975 3 5774
2130 1.8578044801664304 -2.4257103311398471 24.15590878788904 72 57 39 0.35087898943901141 1 7084 3 9262
1485 1.1122219547681049 -8.7027173825477799 24.695333997333325 19 9 1 0.021398149932390642 2 474 3 4781
1486 -45.990076040871401 -39.714296612160929 122.50478034448209 127 158 176 0.046783511024389178 1 2493 2 2941 3 4803
1491 7.1974170323799154 -4.2350029771349904 13.205972902357344 222 202 171 0.017230506543097303 2 2872 3 4825
1492 24.125489373655451 -6.3040306635671604 17.922295027165529 116 129 82 0.19284007079703705 2 4610 3 4892
1701 19.084647209294822 -5.9026020277824651 19.861951374419757 11 16 6 0.16974062855259256 1 5136 3 6371 2 7007
1493 -11.719282701352009 -13.951338872486765 53.145237788487734 62 47 31 0.59207109298950789 1 4132 2 697 3 4922
1494 18.488941862907652 -5.7776041566931662 19.989764831377631 51 66 32 0.21925197387121018 1 4145 2 4654 3 4931
2216 4.6334018200653215 3.413100535715849 10.894360339721691 75 57 42 0.096393520016855638 1 7466 3 9862
1499 3.5288514819965422 -2.6847928197084916 13.678889329905203 196 178 150 0.048936650173963328 2 3149 3 4994
1500 7.6023583336869764 -2.8639139655976509 13.272126816866349 203 184 154 0.076127877499648694 2 3153 3 4995
1709 8.0595047236064357 -2.4015884173342226 13.177759252978014 176 159 134 0.19515327674805089 1 2872 3 6465
2210 7.6680336383504377 -0.019254124021444108 10.741513285609583 50 41 34 0.0076043726398827595 2 9078 3 9836
1501 8.516988281981563 -3.136985180977037 13.144017219058524 168 152 126 0.018452578389792126 2 3024 3 4997
1502 8.516988281981563 -3.136985180977037 13.144017219058524 168 152 126 0.018452578389792126 2 3025 3 4998
1504 7.1153129612535357 -2.6974665531177431 13.333249146865404 213 193 162 0.0059798223636253712 2 4786 3 5071
1649 -15.064070976829813 8.4597803035972312 24.793634602881312 237 208 169 0.10965157591093896 2 2082 3 5858
1507 -33.935849311670687 -17.585938373316555 117.43213514551189 128 118 107 0.18634725332538818 1 2845 2 3341 3 5154
1508 -2.1348142082896842 -4.7035319568338183 32.375127677124304 95 75 50 0.099134724259378637 1 4257 3 5160
1653 -10.911483898338709 8.584519908103708 24.164589932965917 157 137 106 0.0076218221270482837 2 2181 3 5869
1509 -1.7681601899288826 -4.462170322523094 31.515701300535071 13 5 1 0.026422226252738473 2 3356 3 5162
1510 -1.6049555236592714 -4.3150497600721485 31.28146743223143 22 13 4 0.01896636736614626 2 3357 3 5163
1512 -0.13872222861343314 -4.0732428866276837 28.022883627556013 75 57 34 0.31229749680036967 2 1131 3 5167
1657 -5.0376877915880414 8.634319489153695 22.061304980379287 115 107 96 0.14087720557025235 2 2258 3 5881
2168 17.849621104501828 1.1392197199282694 15.472851435794134 204 167 88 0.70621065469348576 2 9090 3 9537
1515 1.8544750816658127 -3.5654930040092139 23.276458353555878 92 72 54 0.0079909874002216785 1 1015 3 5175
1516 2.0192670914492141 -3.4955498839148587 23.110062687428623 62 47 28 0.047222740510653283 1 2867 3 5176
1661 -3.5072748351331247 7.4766157347793669 17.191841680945863 211 188 156 0.14050177144151227 2 2334 3 5974
2162 0.40141117183777525 -5.8582796842988634 27.765172580873131 79 58 35 0.080399049450831928 2 8636 3 9488
1517 2.8352586098253276 -2.0931224287201808 13.804146759814277 133 120 100 0.049510601836664087 2 3260 3 5181
1518 -33.650124418058091 -8.4446135443566437 69.879735819193897 195 175 143 0.036314275150689232 1 1129 3 5217
1520 -3.6607937011436351 -4.3023022996763958 36.006813341834992 28 19 10 0.012459661926662889 2 3355 3 5240
1601 -17.795847362021785 8.002664814601669 32.575304176513484 167 143 108 0.079115472063701675 2 1913 3 5668
1523 5.9305065970241193 -1.1744298079832913 11.022608984272392 78 71 63 0.13991472027279153 2 1136 3 5244
1524 8.6920169985080893 -1.6834921950726649 13.220925786515195 201 183 155 0.060384806452219705 2 4958 3 5246
1605 -12.083372183831408 8.1999165683467456 30.191942694838112 169 144 108 0.088914743930359696 2 3934 3 5678
1525 -31.218745129926898 -7.0167020066787433 72.22102571666943 209 187 151 0.063900122037440332 1 2926 3 5278
1526 -4.109976719842714 -3.5154393976384393 37.017248521730167 6 1 0 0.080731217121497542 1 2951 2 3451 3 5286
1528 20.662231701313491 -1.6367141753691226 15.77589215002714 24 31 17 0.077925440086271794 1 2977 2 5033 3 5299
1609 -4.8876136544489333 8.2230765523494611 28.967322545877185 92 85 69 0.18139097740162469 2 3940 3 5685
2120 -0.3179335386120351 -9.2683579357549899 27.96866424373583 81 63 44 0.23029389921755775 1 6992 2 8213 3 9175
1531 -1.5713949725858576 -1.2620858187876609 31.638627401756203 133 122 105 0.013041300451534284 2 3494 3 5316
1532 2.49576314261556 -0.57574943918272681 11.360743407019488 167 151 134 0.013118580905064677 2 1361 3 5319
1613 -0.80852296649699928 8.236473946043569 28.54451179894647 23 32 12 0.051187723614725358 2 3957 3 5699
2114 3.0688259842809993 -5.8838128976041766 13.559207716551311 152 138 115 0.26944679247489145 1 5923 3 9124
1533 5.4190862104077997 -0.6215489807746335 10.964856339158136 157 140 124 0.010446296995516843 2 1364 3 5320
1534 3.1049345567311821 -0.32737891136284647 11.301794015463372 115 106 91 0.19115032823427949 1 1353 2 1362 3 5352
1536 9.0599923404368603 -0.084679002832380029 10.638965184243037 138 124 109 0.050760230090868663 2 3576 3 5354
1538 -31.408603671292383 2.5130213394981107 72.505453917755702 184 163 131 0.029564915669759217 1 1426 3 5382
1543 0.048830656416470775 1.7682672546575953 28.046996804987909 117 67 45 0.023178770865107716 2 3696 3 5453
1544 0.64977128261849759 1.8514901589803958 26.733116680863944 115 67 45 0.13778460384406857 1 3168 2 3700 3 5454
1546 23.989013921645 1.3194628041216598 18.265296875555489 56 70 47 0.11846831874628048 1 4485 2 6404 3 5456
1551 -7.5412538573010277 4.4137302711953232 45.409693488651442 111 99 82 0.26697532003541141 1 3162 3 5491
1552 -7.5412538573010277 4.4137302711953232 45.409693488651442 111 99 82 0.26697532003541141 1 3161 3 5492
1554 -6.8125538226417346 4.1129360098755843 43.609401715792821 121 110 91 0.063555612619195054 2 3749 3 5494
1559 -22.784481623427855 2.9495024372875163 35.138149558553472 186 166 137 0.3086227401900804 2 1630 3 5520
1560 -5.6852357129404476 5.0730751005647727 41.384679852027034 119 108 92 0.16208524710638747 1 3229 2 3753 3 5533
1562 2.3078883034671174 1.0069330946336943 11.497175724351409 116 106 93 0.029521191247922886 2 1697 3 5537
1567 7.0003264860165881 1.0577895562574389 10.931076952044974 148 126 103 0.017567964430249265 2 3711 3 5546
1568 7.1224136490946623 0.94152294686752558 10.939416832528531 118 99 82 0.071588268336017211 1 1523 3 5547
2252 3.3204597242859659 0.88018775362170643 11.427400064250646 125 112 100 1.8996760944186093 1 8117 3 10090
1570 9.1299814115768836 1.1737664785876454 10.732210467109169 45 32 22 0.07732326756625145 1 1525 3 5550
1575 -20.791268391122014 7.3046472888609166 41.719266499096477 200 167 123 0.1512215299794957 2 1808 3 5580
1576 -20.791268391122014 7.3046472888609166 41.719266499096477 200 167 123 0.1512215299794957 2 1809 3 5581
1578 -20.232894837387917 7.5275264198496705 40.615807761541966 181 155 114 0.23480973625750012 2 1864 3 5585
